9.832854370000000677e-02 4.169841740399999885e-01 1.297050257200000056e-01
9.120889890000000166e-02 4.177208268700000060e-01 1.287176827100000032e-01
8.253333479999999667e-02 4.167318168999999406e-01 1.266830405000000104e-01
1.205382719000000075e-01 4.178901551999999464e-01 1.258064799999999983e-01
1.204384635000000092e-01 4.248655024999999918e-01 1.165045315000000081e-01
1.295818190000000147e-01 4.154066342999999661e-01 1.201529219000000009e-01
1.240643021000000096e-01 4.200948286000000254e-01 1.205751974000000004e-01
1.239158184999999968e-01 4.237393619999999528e-01 1.105065350000000030e-01
1.323385817000000131e-01 4.139837451999999751e-01 1.147444518000000080e-01
1.106533087000000082e-01 4.256965719999999953e-01 1.216303512000000142e-01
1.025236354000000072e-01 4.270696352699999698e-01 1.213936919100000039e-01
1.118305729000000082e-01 4.198300633000000004e-01 1.267805962999999925e-01
1.021888094000000108e-01 4.207726525299999576e-01 1.268184462899999976e-01
1.137544996000000030e-01 4.274929735999999925e-01 1.168036783999999995e-01
1.039812930000000024e-01 4.306838663900000030e-01 1.145513820700000129e-01
1.175896802999999990e-01 4.240040407999999816e-01 1.215646501999999990e-01
9.279550520000000302e-02 4.271890050900000180e-01 1.197952623700000024e-01
8.380668270000000974e-02 4.262357469999999982e-01 1.173773432000000116e-01
9.163238719999999837e-02 4.225037328299999784e-01 1.250740459899999935e-01
8.164762310000001078e-02 4.211312245999999648e-01 1.224829624000000061e-01
9.430797660000000970e-02 4.307745951899999426e-01 1.131782510699999994e-01
8.430555870000000507e-02 4.290650013000000262e-01 1.107343141000000086e-01
1.135805280000000139e-01 4.297130315999999617e-01 1.095186147999999970e-01
1.045752915000000005e-01 4.322722547899999768e-01 1.065396712699999970e-01
9.932262550000001133e-02 4.323959278500000281e-01 1.041032580500000082e-01
8.389029250000000493e-02 4.299887610999999499e-01 1.034256013000000030e-01
7.622949610000001597e-02 4.152310595999999521e-01 1.246887574000000026e-01
1.810694980000000787e-02 4.377602743999999824e-01 1.218324970000000118e-01
2.859464500000000187e-02 4.466344811000000359e-01 1.128688463000000058e-01
2.234195580000000736e-02 4.482711972999999794e-01 1.136619507000000001e-01
2.875120550000001551e-02 4.390641699999999759e-01 1.147938310000000128e-01
2.221757940000002041e-02 4.409524355999999701e-01 1.187317062000000090e-01
1.320508019999999672e-02 4.377354780000000112e-01 1.209879112000000062e-01
1.409839490000000528e-02 4.469764434999999869e-01 1.116270689000000010e-01
1.103152780000000999e-02 4.408977339999999856e-01 1.157276648000000047e-01
6.567460600000019078e-03 4.377481525999999956e-01 1.104332574000000122e-01
2.613165370000000709e-02 4.271820226999999970e-01 1.242044303000000016e-01
1.988512920000000406e-02 4.304166730999999801e-01 1.242835935000000114e-01
2.629411930000001563e-02 4.234771568999999847e-01 1.247653025000000082e-01
2.019470149999999520e-02 4.219446042000000174e-01 1.251263306000000020e-01
3.134388630000001230e-02 4.293324890999999921e-01 1.179767211000000010e-01
2.460286150000000338e-02 4.334596435999999997e-01 1.213614818000000040e-01
3.050327669999999824e-02 4.212606635999999738e-01 1.191981579999999985e-01
2.161550900000000497e-02 4.167051620999999706e-01 1.219576853000000072e-01
1.200476219999999095e-02 4.310902586999999508e-01 1.222717872999999900e-01
1.439501080000001043e-02 4.227534926999999554e-01 1.226542659000000035e-01
7.987503300000003970e-03 4.294334274000000118e-01 1.185091450000000102e-01
4.629783700000000835e-03 4.290785699999999370e-01 1.133360331999999915e-01
1.060531900000001582e-02 4.199234138999999866e-01 1.189398816999999997e-01
4.553492999999991797e-03 4.207469075999999975e-01 1.141373247999999951e-01
4.013707560000000230e-02 4.541356556000000211e-01 1.032303843999999998e-01
4.174600350000001042e-02 4.544776446999999608e-01 1.002248531000000109e-01
6.612525794400000989e-02 4.708129198639999791e-01 7.613277637600000813e-02
6.464631445700000367e-02 4.708024718419999699e-01 7.587862012800000722e-02
6.603138945400001403e-02 4.682290599239999906e-01 7.672445441600000970e-02
6.865598666000000128e-02 4.562101395600000053e-01 7.984872844000001635e-02
4.839941489999999985e-02 4.543469607000000243e-01 8.555276650000000205e-02
6.015158386000001023e-02 4.655067898599999920e-01 7.839680654000000248e-02
5.229563044000001132e-02 4.632730374399999795e-01 7.819607216000000471e-02
5.939095627000000321e-02 4.560598738199999613e-01 8.168790868000000427e-02
4.976130079000000428e-02 4.582959061400000422e-01 8.210642736000001163e-02
3.374331530000000690e-02 4.550600015000000331e-01 1.049410063000000004e-01
2.456827330000001253e-02 4.550411127999999250e-01 1.036270852000000103e-01
3.478383849999999722e-02 4.565558812999999660e-01 9.910006590000000615e-02
2.536303850000001803e-02 4.567433920000000258e-01 9.740769700000001530e-02
1.799497040000001824e-02 4.543341346999999475e-01 1.008890645000000003e-01
1.638594250000000030e-02 4.547456278999999491e-01 9.417918570000000100e-02
1.158931550000000255e-02 4.528699879999999456e-01 8.933930700000000669e-02
4.336908650000000781e-02 4.553757460000000257e-01 8.345229300000001071e-02
4.335827925000000638e-02 4.568870493000000144e-01 8.021930639999999557e-02
1.094383350000001365e-02 4.525023730000000133e-01 8.625020099999999856e-02
4.029605300000001222e-02 4.479198849000000093e-01 1.046230236999999980e-01
4.133385510000001095e-02 4.374998010999999742e-01 1.071900219000000154e-01
4.316000950000001279e-02 4.484673973999999674e-01 1.004599612000000031e-01
5.125111370000001026e-02 4.333858807000000035e-01 9.914518330000000879e-02
4.585593510000001566e-02 4.382958956000000406e-01 1.015298634000000033e-01
7.717228890000001063e-02 4.246212231999999531e-01 1.143969890000000045e-01
7.292210570000000336e-02 4.191001817999999712e-01 1.186342726000000070e-01
6.332339430000000213e-02 4.180016418999999983e-01 1.143704784999999974e-01
7.541574859999999880e-02 4.258046103999999499e-01 1.075508558000000114e-01
6.482008290000000617e-02 4.248544443999999753e-01 1.041857956000000057e-01
7.110196050000000545e-02 4.229245459000000040e-01 1.112506277000000071e-01
6.445865970000000389e-02 4.222586288999999882e-01 1.094346109000000067e-01
4.244132640000000678e-02 4.291471136000000186e-01 1.111675852000000020e-01
5.373800940000000165e-02 4.178995796000000151e-01 1.125782671999999984e-01
4.327693660000000997e-02 4.191063132999999774e-01 1.119498945000000079e-01
5.479363060000000396e-02 4.262150950999999965e-01 1.028152578999999983e-01
4.867598840000000870e-02 4.290229690000000318e-01 1.054155073999999970e-01
5.391747290000001303e-02 4.221526594999999715e-01 1.077115839000000047e-01
4.873390430000000551e-02 4.220145879000000155e-01 1.069132625000000086e-01
6.613082135000000750e-02 4.502704794999999871e-01 7.856780360000001351e-02
4.910032530000000422e-02 4.475491215999999328e-01 8.905246860000000375e-02
5.222118970000000360e-02 4.336214876999999746e-01 9.560687330000000594e-02
4.998273770000000865e-02 4.389996827000000046e-01 9.253936730000000832e-02
5.827215039000000624e-02 4.485367669399999979e-01 8.212525636000000961e-02
5.270650379000000468e-02 4.462602522399999883e-01 8.458127166000001251e-02
7.517836010000000790e-02 4.272347231999999995e-01 1.007085242000000103e-01
6.674482519999999641e-02 4.267242395000000466e-01 9.876130870000000839e-02
5.704731300000000921e-02 4.285610052999999642e-01 9.541744890000000701e-02
3.400146240000000153e-02 4.492030545999999847e-01 1.086652181999999967e-01
2.356235440000001291e-02 4.525771133000000002e-01 1.084144593000000018e-01
3.487215870000000273e-02 4.390648548000000151e-01 1.096869886000000072e-01
1.334177549999999990e-02 4.502169669000000152e-01 1.041352037000000119e-01
8.636594700000013725e-03 4.462305765999999840e-01 1.013450810000000035e-01
6.629450200000011617e-03 4.404294531999999873e-01 1.056152928000000102e-01
1.192562040000000323e-02 4.521361285999999646e-01 9.570939720000000428e-02
8.493899700000015485e-03 4.481861382999999810e-01 9.300795510000001154e-02
7.772721000000010205e-03 4.382392360999999292e-01 9.162488130000000230e-02
3.597128160000000185e-02 4.318517177999999790e-01 1.137043410000000004e-01
3.476666650000000136e-02 4.176582744999999819e-01 1.135432615000000062e-01
3.585119900000002802e-03 4.299333985999999608e-01 1.070012282000000065e-01
3.377630699999994990e-03 4.189771049000000080e-01 1.089980909000000109e-01
4.936512300000001074e-03 4.281427042000000016e-01 9.362022140000000880e-02
4.275244700000013776e-03 4.215470199999999945e-01 9.331483120000000353e-02
7.725634000000008994e-03 4.455585802999999512e-01 8.695289189999999557e-02
8.291308100000005510e-03 4.370518894999999571e-01 8.787795310000001692e-02
6.140956700000005375e-03 4.167240795999999636e-01 8.860037400000000951e-02
1.172273114000000060e-01 4.066639375999999695e-01 1.352780071999999945e-01
1.257957464999999997e-01 3.964723117999999769e-01 1.370676543000000080e-01
1.192100883999999972e-01 4.004307187999999740e-01 1.382500269999999976e-01
1.259398720000000083e-01 3.908427603999999889e-01 1.382476739000000066e-01
1.194856918000000157e-01 3.911081419999999920e-01 1.410591717000000134e-01
1.257864294000000105e-01 3.825569409999999837e-01 1.388635362000000262e-01
1.193626419000000105e-01 3.811902124999999586e-01 1.420040096999999890e-01
1.050142782000000052e-01 3.979508748000000207e-01 1.433673119000000162e-01
9.786542950000000352e-02 3.994657718299999827e-01 1.432301347899999910e-01
1.095195707000000129e-01 4.092356434999999681e-01 1.352141587000000034e-01
1.002988204000000022e-01 4.101006270399999987e-01 1.330730669200000105e-01
1.097041101000000018e-01 4.015320710999999987e-01 1.402439686999999990e-01
9.989079610000001219e-02 4.036339474399999738e-01 1.388804024199999931e-01
8.824741220000001385e-02 4.004906613700000007e-01 1.427989826100000137e-01
7.901319680000000456e-02 3.998665770000000008e-01 1.409348571000000050e-01
9.057570950000000398e-02 4.106281685000000015e-01 1.315382645000000017e-01
8.086204870000000822e-02 4.104566716999999976e-01 1.291290143000000112e-01
8.999104439999999761e-02 4.047713206199999858e-01 1.352814714599999968e-01
7.960923480000001162e-02 4.039664706000000161e-01 1.324960986000000007e-01
1.066338757999999998e-01 3.906944682999999863e-01 1.452071605000000154e-01
9.783228039999999903e-02 3.919744857299999885e-01 1.469626448899999938e-01
1.076389626000000127e-01 3.818822732000000109e-01 1.470451427000000200e-01
9.768065620000000726e-02 3.819959639000000129e-01 1.482492360000000065e-01
1.112900640000000080e-01 3.927422681000000138e-01 1.432471586000000074e-01
1.128899977000000082e-01 3.804270060999999647e-01 1.453805732000000017e-01
8.779917810000001377e-02 3.919736185100000103e-01 1.465744875300000194e-01
7.781852750000001206e-02 3.918117436999999925e-01 1.447272217999999999e-01
8.735023530000000924e-02 3.821278196699999796e-01 1.484558016099999933e-01
7.778647580000000450e-02 3.820537618999999552e-01 1.457135163000000122e-01
1.252923447000000023e-01 3.714612056000000107e-01 1.390346926999999899e-01
1.197061831000000021e-01 3.709876992999999734e-01 1.409384127999999958e-01
1.183302686000000103e-01 3.619814610999999571e-01 1.411877692000000073e-01
1.155316444000000081e-01 3.514194032999999884e-01 1.394626092999999845e-01
1.059153871000000080e-01 3.723014245999999861e-01 1.469039490000000059e-01
9.760818540000000543e-02 3.720400838899999840e-01 1.486903093699999956e-01
1.042637436000000001e-01 3.636724735999999902e-01 1.461793646000000002e-01
9.797169140000000498e-02 3.618736108699999732e-01 1.476764383099999911e-01
1.112038584000000080e-01 3.705687449999999772e-01 1.447313359999999882e-01
1.092626449000000111e-01 3.611342596000000071e-01 1.448510605000000173e-01
1.032602853000000043e-01 3.573863171000000172e-01 1.458603445000000165e-01
8.767713550000000300e-02 3.719001023199999811e-01 1.482159015600000018e-01
7.817469250000000369e-02 3.718277474999999721e-01 1.447609069999999942e-01
8.790588360000001211e-02 3.616280699000000154e-01 1.471472232000000102e-01
7.848165740000001556e-02 3.618183539999999532e-01 1.434684982000000164e-01
7.528145569999999953e-02 3.569141846000000173e-01 1.401306273000000047e-01
9.678724270000001184e-02 3.547689586599999667e-01 1.464141097799999958e-01
1.095755763000000049e-01 3.508469209999999783e-01 1.412732003000000125e-01
9.984547250000000429e-02 3.498661576999999578e-01 1.427751740000000047e-01
1.091626954000000094e-01 3.439170751999999776e-01 1.416416322999999866e-01
9.933394300000000787e-02 3.438443379000000188e-01 1.419945458999999910e-01
8.863282920000001286e-02 3.546470149100000024e-01 1.452374908300000100e-01
7.814294930000001416e-02 3.514035479999999545e-01 1.425877138999999960e-01
7.667499120000001445e-02 3.444412614999999844e-01 1.431238472999999956e-01
8.899541630000000481e-02 3.492925223399999668e-01 1.416104360200000079e-01
7.937034730000000482e-02 3.512787531000000074e-01 1.405511621000000155e-01
8.915800150000000035e-02 3.440272205100000091e-01 1.419177648300000150e-01
8.159771350000000201e-02 3.441321734499999674e-01 1.424956268500000012e-01
1.392345304000000006e-01 3.962113655000000234e-01 1.214316034999999988e-01
1.286506943000000069e-01 4.076833235999999805e-01 1.276718896000000047e-01
1.216061407000000039e-01 4.105199898999999930e-01 1.305746668999999971e-01
1.296351255000000036e-01 3.998559519000000062e-01 1.317470121000000050e-01
1.244212420999999957e-01 4.029749601000000014e-01 1.341269043000000161e-01
1.319821193000000059e-01 4.091533979999999460e-01 1.230243618000000094e-01
1.274265509999999990e-01 4.137661804999999693e-01 1.245136985000000057e-01
1.357731954999999990e-01 3.996786940000000010e-01 1.246269154000000101e-01
1.393006200999999944e-01 3.888588477000000099e-01 1.239480028999999928e-01
1.493235234999999994e-01 3.744044203999999931e-01 1.235320498999999961e-01
1.403190974000000091e-01 3.789610219999999807e-01 1.244855662000000085e-01
1.310788741000000202e-01 3.900914642000000154e-01 1.336530623000000140e-01
1.307694604000000094e-01 3.801193762999999781e-01 1.347950747999999976e-01
1.366125328000000194e-01 3.899994419999999740e-01 1.274011177000000106e-01
1.365811745999999938e-01 3.795930529000000053e-01 1.287736232000000203e-01
1.409065841000000097e-01 3.976937762999999681e-01 1.141875700999999965e-01
1.427184484500000072e-01 3.976171189999999633e-01 1.077710025999999988e-01
1.362858315000000098e-01 4.077088744999999848e-01 1.146875575000000091e-01
1.390226301000000164e-01 4.017142452999999946e-01 1.154183045000000130e-01
1.422540518000000032e-01 3.889729889999999912e-01 1.156810687000000004e-01
1.511620294000000086e-01 3.745909241999999528e-01 1.213395773000000011e-01
1.450062722000000082e-01 3.755933450000000229e-01 1.194615942000000069e-01
1.439724078300000099e-01 3.872597314799999801e-01 1.098625904200000031e-01
1.123566019000000055e-01 4.130866680999999985e-01 1.312257346999999852e-01
1.039562264000000041e-01 4.140353933999999514e-01 1.300186866000000163e-01
1.400572975000000109e-01 3.604053285000000106e-01 1.342353095999999912e-01
1.508144616000000049e-01 3.689309056999999781e-01 1.281724751999999967e-01
1.426359254000000021e-01 3.697371595999999760e-01 1.286565122000000172e-01
1.505469520000000117e-01 3.599685456999999755e-01 1.298174901999999964e-01
1.449055057000000202e-01 3.597461346999999976e-01 1.330332807000000062e-01
1.296551922000000190e-01 3.706084265999999849e-01 1.359985533999999996e-01
1.250455299000000076e-01 3.686385573999999554e-01 1.391344176000000044e-01
1.312169432999999996e-01 3.598510441999999698e-01 1.343170083000000126e-01
1.229078162000000057e-01 3.587183702999999779e-01 1.382394006000000064e-01
1.360535174999999986e-01 3.692522387000000128e-01 1.294754132000000002e-01
1.353140656000000053e-01 3.638959821999999678e-01 1.311699102000000172e-01
1.383036551000000058e-01 3.531647440999999832e-01 1.345083746999999885e-01
1.496537937999999901e-01 3.526229880999999788e-01 1.274419340000000067e-01
1.426432244999999988e-01 3.501482369999999733e-01 1.301597570000000148e-01
1.314370334000000140e-01 3.515672638999999822e-01 1.334879549999999915e-01
1.208017261000000064e-01 3.506327516999999672e-01 1.360652823999999872e-01
1.186928858000000087e-01 3.437455996999999597e-01 1.344389330999999910e-01
1.324934496000000073e-01 3.464464496999999921e-01 1.309581830000000058e-01
1.260019333000000075e-01 3.462483158999999922e-01 1.306551690999999960e-01
1.312485502000000082e-01 3.429626271000000282e-01 1.278402770000000022e-01
1.246370469000000064e-01 3.420567768000000175e-01 1.283304215000000137e-01
1.553620411000000145e-01 3.698504256999999851e-01 1.220733854000000118e-01
1.423538525999999971e-01 3.734970183999999915e-01 1.214655912000000004e-01
1.552925225999999825e-01 3.598531301999999821e-01 1.240667061000000071e-01
1.511957550999999955e-01 3.513887605999999608e-01 1.249358007000000020e-01
1.461203625000000172e-01 3.472235445999999892e-01 1.243278956000000018e-01
1.151049781999999994e-01 3.516913383999999976e-01 1.386797415000000089e-01
1.146134815000000029e-01 3.426892740999999964e-01 1.384771843000000002e-01
7.139298650000000523e-02 3.983614334999999729e-01 1.378339144999999877e-01
7.165068070000001066e-02 4.095712323999999849e-01 1.263564154000000050e-01
6.242024640000000402e-02 4.071759710999999782e-01 1.238637757000000117e-01
6.990705760000001656e-02 4.014509448999999952e-01 1.300311843999999994e-01
6.101145620000000824e-02 4.005361493999999856e-01 1.269607956000000093e-01
5.049857430000000147e-02 4.071910699999999883e-01 1.210873957999999972e-01
4.176753560000000948e-02 4.070313449999999889e-01 1.194073786000000026e-01
5.148290240000000240e-02 4.002131734999999635e-01 1.235605047000000040e-01
4.141368850000000379e-02 4.002480216999999563e-01 1.226732630000000046e-01
6.890796270000000556e-02 3.913994458999999759e-01 1.406537253000000043e-01
6.436282179999999742e-02 3.873386575999999692e-01 1.355378395000000069e-01
6.930611470000000440e-02 3.819865087999999576e-01 1.412674619000000020e-01
6.565510850000000342e-02 3.937365897000000281e-01 1.338227168999999994e-01
6.082142270000000933e-02 3.906212195000000054e-01 1.282157432000000097e-01
6.626227419999999868e-02 3.788854064999999660e-01 1.335102561000000021e-01
6.104245010000000637e-02 3.803392876000000200e-01 1.272500614000000030e-01
5.126191270000000910e-02 3.903568142000000130e-01 1.253980586000000008e-01
4.113438410000000434e-02 3.903085286999999903e-01 1.250190065000000017e-01
5.121482760000001244e-02 3.801074765999999938e-01 1.256676349999999998e-01
4.139886420000000317e-02 3.801993028999999802e-01 1.240971438000000038e-01
3.272700720000000507e-02 4.068497191000000068e-01 1.177803265000000044e-01
2.105587020000000698e-02 4.128456523999999850e-01 1.180100783999999958e-01
3.179149010000001385e-02 3.999859590000000020e-01 1.204968421000000012e-01
2.406036550000001384e-02 3.990962779999999710e-01 1.170315561000000171e-01
1.344574390000001507e-02 4.139180312999999889e-01 1.164019753000000018e-01
3.131531120000000112e-02 3.900487034999999825e-01 1.226207294999999975e-01
2.359181000000000472e-02 3.903349071999999698e-01 1.183395680000000061e-01
3.219682360000000743e-02 3.806341021999999907e-01 1.213436454999999997e-01
2.542652240000001229e-02 3.830925238999999816e-01 1.185338599000000104e-01
7.159017800000000431e-02 3.723418873000000073e-01 1.406735732999999933e-01
7.309439990000000942e-02 3.634197111999999952e-01 1.402564102999999951e-01
6.858709740000000499e-02 3.702533439999999842e-01 1.329266098000000118e-01
5.922159870000000964e-02 3.711359391999999868e-01 1.265230173000000125e-01
7.032389340000000377e-02 3.604798730000000062e-01 1.341979826999999958e-01
5.717726790000000892e-02 3.640089168999999791e-01 1.262865333000000034e-01
5.202514940000001198e-02 3.702695858999999756e-01 1.256183758000000150e-01
4.506019290000000399e-02 3.740813045999999975e-01 1.227551184000000017e-01
5.305213680000001042e-02 3.627362168000000109e-01 1.256137056999999946e-01
6.857539240000001812e-02 3.496429923999999634e-01 1.422044241000000042e-01
6.167268740000000221e-02 3.480832470999999928e-01 1.397545892000000012e-01
6.827505210000001101e-02 3.446521908999999884e-01 1.439394085000000045e-01
6.030633310000001190e-02 3.443565352999999885e-01 1.409219047999999974e-01
6.964620309999999814e-02 3.539596591999999986e-01 1.363151961000000079e-01
6.020767350000000295e-02 3.507264992999999942e-01 1.331392275000000125e-01
5.637508710000000561e-02 3.438612893999999920e-01 1.354491208999999974e-01
5.099885760000000268e-02 3.482597843999999943e-01 1.278257178999999966e-01
4.089387600000000261e-02 3.482323048000000032e-01 1.277219562999999947e-01
5.063622120000001170e-02 3.429854627999999739e-01 1.303199594999999988e-01
4.038248519999999842e-02 3.430697396999999871e-01 1.309191856999999959e-01
3.365293260000000453e-02 3.476309669000000047e-01 1.256546152999999943e-01
3.201842450000001727e-02 3.426365102999999745e-01 1.273621748000000053e-01
6.951925170000000653e-02 4.134366895000000097e-01 1.225293537000000099e-01
6.179356160000000486e-02 4.116490094999999960e-01 1.199275211000000035e-01
5.319019370000001301e-02 4.113150193999999815e-01 1.182253794000000108e-01
4.280288340000000524e-02 4.117663341999999727e-01 1.163598350000000087e-01
3.261172219999999844e-02 4.113764003000000002e-01 1.143387401000000025e-01
2.336207880000001902e-02 4.084110722999999554e-01 1.119742707000000032e-01
2.019704190000000399e-02 4.002882791999999856e-01 1.129968852000000079e-01
1.707258440000000710e-02 4.069520503999999872e-01 1.054982856000000052e-01
1.567455800000001898e-02 3.987848494999999827e-01 1.073499741000000091e-01
1.376804450000002067e-02 4.068846469999999882e-01 9.834741400000000799e-02
1.132668450000000326e-02 4.038174221999999980e-01 9.286621360000001102e-02
1.191972720000000763e-02 3.984892597999999952e-01 1.006850509000000171e-01
1.005778930000000848e-02 3.973689323999999856e-01 9.547003620000001078e-02
1.947365280000000476e-02 3.886791287999999955e-01 1.144957552000000073e-01
2.969106000000001910e-02 3.762743696999999998e-01 1.179808495999999929e-01
2.268019370000001755e-02 3.788948325000000006e-01 1.136669939000000129e-01
2.015496640000001560e-02 3.742683790999999927e-01 1.057378657999999971e-01
1.560954180000000135e-02 3.892192903000000204e-01 1.090127079000000054e-01
1.698403590000001351e-02 3.813849716999999639e-01 1.082199442000000011e-01
1.235246900000000481e-02 3.880681078000000062e-01 1.009619696000000066e-01
1.024849770000001159e-02 3.901459164999999674e-01 9.585039480000000223e-02
1.619699390000001182e-02 3.785222898000000225e-01 1.015293581000000084e-01
1.268891749999999374e-02 4.082895803000000101e-01 9.044902690000000689e-02
1.167929919999999289e-02 4.052368504000000149e-01 8.914375840000000883e-02
9.919686400000002346e-03 3.988481428999999800e-01 8.978131920000001487e-02
1.246934570000002296e-02 3.836329304999999690e-01 9.285057460000001317e-02
9.713833900000024002e-03 3.897280516999999667e-01 9.202593770000000450e-02
1.598878040000001333e-02 3.766634278999999585e-01 9.343358040000000753e-02
1.846755795000000477e-02 3.741949062999999631e-01 8.323765140000000118e-02
6.690723910000001551e-02 3.674169907000000013e-01 1.268134034000000243e-01
6.347599859999999983e-02 3.693237570999999830e-01 1.255341568999999990e-01
6.721977040000000347e-02 3.598036138999999856e-01 1.271911118000000063e-01
6.202518320000000723e-02 3.597627404000000029e-01 1.249676413000000014e-01
4.804853760000001028e-02 3.676090496000000152e-01 1.227923501000000028e-01
4.243664910000000817e-02 3.696261221000000097e-01 1.189512932000000023e-01
5.108401480000000772e-02 3.586738124999999666e-01 1.241642238000000009e-01
4.531550880000001502e-02 3.594886421999999859e-01 1.181055698000000043e-01
4.036017920000000564e-02 3.644269775999999794e-01 1.116305206999999994e-01
4.267063210000000828e-02 3.603341312000000185e-01 1.092459179999999974e-01
5.944729270000000815e-02 3.533319790000000182e-01 1.259441561000000098e-01
5.177287900000000775e-02 3.527812940999999758e-01 1.251668102999999865e-01
4.318401750000000483e-02 3.523082364999999827e-01 1.210798490000000033e-01
4.275660870000000391e-02 3.531518282000000175e-01 1.129542533000000015e-01
4.503720049999999919e-02 3.549687726999999904e-01 9.585220770000001111e-02
4.414521135999999873e-02 3.541714889600000027e-01 9.172044483999999831e-02
4.445847160000000742e-02 3.496364120000000075e-01 9.545425910000000791e-02
4.362256697000000544e-02 3.507289894199999702e-01 9.294983098000000887e-02
3.341772740000001352e-02 3.707807743000000045e-01 1.156060012000000026e-01
2.584011280000002297e-02 3.721385904999999772e-01 1.112716119000000115e-01
3.371176740000000893e-02 3.650255574999999864e-01 1.075370733000000079e-01
2.602544900000000605e-02 3.682304544999999707e-01 1.039488464000000029e-01
3.645454230000000351e-02 3.618892746999999854e-01 1.040595605000000090e-01
3.094761010000000867e-02 3.625658817999999894e-01 1.002708686000000071e-01
1.988347579999999448e-02 3.722196103999999561e-01 9.799385230000000335e-02
3.205748360000000574e-02 3.480103911999999911e-01 1.201023657000000050e-01
2.868024059999998987e-02 3.423880340999999605e-01 1.201446850000000011e-01
2.782255290000000547e-02 3.398424003999999665e-01 1.155583646000000048e-01
2.567322970000000815e-02 3.658051695999999797e-01 9.742704460000001232e-02
3.663696730000001733e-02 3.601045447999999816e-01 1.002641027000000101e-01
3.063328149999999805e-02 3.623954645999999946e-01 9.931327510000000081e-02
4.350737061000000544e-02 3.536600373600000125e-01 8.702549634000000811e-02
1.953090470000000411e-02 3.712650459999999875e-01 9.463673400000000013e-02
3.700676700000000985e-02 3.449336112999999981e-01 9.404691490000000043e-02
3.243986660000000577e-02 3.424078757999999834e-01 9.265609959999999978e-02
3.272093500000000654e-02 3.409503248999999903e-01 9.567571920000000896e-02
3.100944499999999660e-02 3.388099286999999848e-01 9.430916250000000167e-02
3.880041310000000715e-02 3.473883886999999948e-01 9.057364970000000848e-02
3.161804508000001790e-02 3.434590439799999895e-01 9.006917112000001335e-02
2.917331944000001176e-02 3.397766035399999995e-01 9.038284845999999817e-02
8.942959450000000088e-02 4.807733294999999574e-01 5.946191550000000381e-02
9.056718960000000040e-02 4.718756413999999344e-01 6.147597480000001335e-02
8.777765719000001077e-02 4.608111405399999416e-01 7.203154296000000012e-02
8.766739064000000914e-02 4.589091235400000190e-01 7.250405866000000921e-02
9.168436080000000321e-02 4.646540118999999969e-01 6.612444150000000576e-02
8.980721640000000061e-02 4.589653595999999558e-01 7.042728720000000775e-02
9.281385930000000950e-02 4.806566643999999888e-01 5.605710900000000774e-02
9.497360830000001197e-02 4.737417490999999981e-01 5.759125710000000120e-02
9.700748790000000843e-02 4.668759626899999793e-01 6.063513537000000952e-02
7.865242189000000439e-02 4.806585365399999588e-01 6.764555616000000882e-02
7.695930208000001382e-02 4.804709574800000160e-01 6.751043132000000835e-02
7.831902911000000744e-02 4.774869032599999841e-01 6.857220424000000369e-02
7.214847198000000350e-02 4.742364034799999573e-01 7.158921172000000388e-02
8.478625409999999973e-02 4.819510244999999915e-01 6.331175510000000561e-02
8.371125420000000150e-02 4.739672290999999982e-01 6.428072249999999821e-02
7.712442920000001090e-02 4.702509736999999634e-01 6.783404530000000654e-02
6.356457525000000497e-02 4.718476354999999733e-01 7.290810300000000188e-02
8.074121461000000055e-02 4.622821922600000022e-01 7.177646024000000624e-02
7.164617004000001232e-02 4.649158659400000060e-01 7.261339126000000699e-02
8.016623730000001224e-02 4.577609418000000430e-01 7.622674720000000015e-02
7.203239864000000880e-02 4.564885690400000140e-01 7.729341716000000251e-02
8.337686410000000325e-02 4.662607263999999918e-01 6.722483280000000894e-02
7.724847400000001141e-02 4.691114239999999436e-01 6.790807600000001165e-02
6.091199554600001259e-02 4.668366489759999682e-01 7.451951728400001140e-02
5.438648851700000897e-02 4.661835642019999670e-01 7.386829036800000858e-02
6.509183718360000981e-02 4.603190659815999952e-01 7.671968517440000412e-02
3.814863650999999328e-02 4.555768869599999826e-01 6.299416974000000835e-02
3.288570460000000972e-02 4.563374119999999978e-01 6.448023860000000329e-02
4.047207440000000211e-02 4.597049262999999275e-01 5.359326230000000663e-02
3.454660399999999465e-02 4.608031723000000079e-01 5.435942190000000312e-02
3.952212090000001982e-02 4.577586261999999628e-01 5.792782100000000434e-02
3.208296040000001292e-02 4.578367391000000008e-01 5.818336170000001223e-02
2.995117869999999738e-02 4.586181381999999696e-01 5.007256080000000581e-02
2.888854300000000264e-02 4.555229698999999632e-01 5.456716370000000427e-02
3.701632080000000213e-02 4.675898079000000429e-01 3.143161550000000970e-02
3.347273050000000583e-02 4.667843320000000240e-01 2.952799600000000080e-02
4.199471940000001208e-02 4.619641024999999734e-01 4.626234890000001376e-02
3.590458950000000038e-02 4.639025224999999697e-01 4.513136750000000530e-02
4.311019320000000071e-02 4.635962311999999863e-01 4.028148480000000309e-02
3.605929950000001660e-02 4.658304157999999529e-01 3.746266940000000933e-02
3.054981259999998977e-02 4.602445085999999908e-01 4.316347740000000405e-02
2.946879330000000408e-02 4.567659451000000148e-01 4.804969510000001165e-02
3.187768420000000602e-02 4.640339562999999945e-01 3.420561110000000515e-02
6.765031262300000292e-02 4.501710423379999826e-01 7.760574329199999843e-02
4.633484510000001472e-02 4.674015942999999451e-01 2.359779950000000237e-02
4.019749680000002379e-02 4.701234073999999707e-01 2.419575700000001217e-02
4.485226619999999054e-02 4.750592821999999882e-01 1.476086980000000659e-02
4.891039750000000796e-02 4.711778021999999955e-01 1.636812760000000422e-02
4.355604960000001441e-02 4.731900330999999627e-01 1.779986090000001964e-02
3.416744800000001692e-02 4.692054049999999643e-01 2.406826500000000535e-02
